ply
format ascii 1.0
element vertex 1583
property float32 x
property float32 y
property float32 z
property float32 I
end_header
0.9018 11.5402 1.5074 0.9544
-0.1288 11.5617 1.5057 0.9544
-3.3251 11.6287 1.5750 0.9524
-4.4881 11.6532 1.6261 0.9509
-7.1123 11.7085 1.7839 0.9462
-8.5674 11.6278 1.8808 0.9434
-10.2363 11.5744 2.0121 0.9396
-15.0390 11.8762 2.4954 0.9256
-14.1340 -7.5422 2.0862 0.9374
0.6229 -7.9717 1.0412 0.9683
3.5626 11.4848 1.5659 0.9527
1.4200 11.5294 1.5127 0.9542
-1.6910 11.5944 1.5258 0.9538
-2.7685 11.6170 1.5551 0.9530
-6.4083 11.6936 1.7364 0.9476
-7.8575 11.7242 1.8379 0.9447
-11.4114 11.7993 2.1375 0.9359
-13.7011 11.8478 2.3587 0.9295
3.0117 11.4954 1.2761 0.9533
0.9017 11.5394 1.2429 0.9545
-0.1288 11.5610 1.2415 0.9546
-1.1652 11.5826 1.2500 0.9542
-2.2245 11.6048 1.2688 0.9536
-3.3249 11.6279 1.2987 0.9525
-8.6501 11.7400 1.5659 0.9430
-12.4804 11.8039 1.8446 0.9332
-14.1410 -7.5459 1.7212 0.9376
0.6162 -7.8852 0.8493 0.9687
3.5624 11.4840 1.2911 0.9528
2.4726 11.5067 1.2638 0.9538
1.4199 11.5286 1.2473 0.9543
-0.6452 11.5718 1.2445 0.9544
-1.6909 11.5936 1.2581 0.9540
-2.7683 11.6162 1.2823 0.9531
-3.8971 11.6399 1.3181 0.9518
-11.4104 11.7982 1.7625 0.9361
-13.4673 11.6456 1.9118 0.9309
-13.9342 0.0000 1.1796 0.9456
3.2854 12.5402 1.0974 0.9493
2.1546 12.7735 1.0966 0.9493
0.9126 11.6795 0.9917 0.9541
-0.1304 11.7013 0.9906 0.9541
-1.1651 11.5819 0.9854 0.9543
-2.2503 11.7397 1.0119 0.9531
-3.3635 11.7630 1.0357 0.9521
-4.5399 11.7877 1.0693 0.9506
-5.7386 11.6778 1.1015 0.9491
-8.6493 11.7390 1.2343 0.9431
-12.4975 11.8200 1.4562 0.9333
-15.0357 11.8736 1.6218 0.9260
-13.9455 -0.6218 1.1817 0.9455
3.8425 12.3871 1.0979 0.9493
2.7224 12.6690 1.0970 0.9493
1.4371 11.6685 0.9952 0.9539
-2.8004 11.7512 1.0226 0.9527
-6.4073 11.6918 1.1286 0.9479
-11.4093 11.7971 1.3893 0.9362
-13.6983 11.8454 1.5330 0.9299
-13.8650 0.0000 0.8598 0.9459
0.2578 -7.7109 0.4784 0.9696
5.8080 -7.5257 0.5895 0.9626
3.6164 13.8035 0.8848 0.9444
-0.1304 11.7005 0.7256 0.9542
-1.1651 11.5811 0.7218 0.9544
-4.5520 11.8190 0.7854 0.9505
-5.8211 11.8456 0.8185 0.9485
-7.2134 11.8749 0.8616 0.9458
-8.7736 11.9076 0.9172 0.9424
-10.5643 11.9453 0.9889 0.9381
-12.6423 11.9570 1.0790 0.9326
-15.0341 11.8723 1.1879 0.9261
-13.8543 0.6178 0.8600 0.9459
2.9691 13.8171 0.8764 0.9449
1.4370 11.6677 0.7290 0.9540
0.3908 11.6896 0.7253 0.9542
-0.6530 11.7114 0.7274 0.9541
-2.8079 11.7825 0.7511 0.9526
-3.9528 11.8065 0.7721 0.9513
-7.9691 11.8907 0.8876 0.9442
-9.6353 11.9257 0.9507 0.9404
-13.6969 11.8441 1.1229 0.9300
-14.1921 -1.2682 0.5618 0.9446
5.8085 -7.5263 0.3749 0.9627
3.6161 13.8026 0.5626 0.9445
-0.1300 11.6678 0.4601 0.9544
-1.1650 11.5803 0.4589 0.9545
-2.2562 11.7701 0.4726 0.9532
-3.3723 11.7935 0.4837 0.9521
-5.8207 11.8448 0.5204 0.9485
-8.7729 11.9066 0.5832 0.9425
-10.5634 11.9442 0.6287 0.9382
-15.2496 12.0425 0.7662 0.9252
-13.7861 0.6147 0.5441 0.9463
-14.1038 -7.5260 0.6304 0.9380
0.6020 -7.7041 0.3047 0.9695
1.4330 11.6351 0.4623 0.9542
-0.6512 11.6786 0.4612 0.9543
-1.7150 11.7588 0.4686 0.9535
-2.8077 11.7817 0.4776 0.9527
-3.9525 11.8056 0.4909 0.9514
-6.4989 11.8590 0.5332 0.9473
-7.9685 11.8898 0.5644 0.9443
-9.6345 11.9247 0.6045 0.9405
-13.8934 12.0141 0.7242 0.9291
-13.7756 1.2310 0.5454 0.9461
-13.7293 -0.0000 0.2319 0.9466
-14.1725 -1.2665 0.2404 0.9447
5.8090 -7.5270 0.1606 0.9627
3.6159 13.8017 0.2410 0.9445
2.3326 13.8285 0.2369 0.9454
-2.2560 11.7694 0.2024 0.9532
-3.3720 11.7927 0.2072 0.9521
-5.8203 11.8439 0.2229 0.9486
-12.6398 11.9547 0.2939 0.9328
-15.2064 12.0084 0.3273 0.9254
-13.7186 0.6117 0.2320 0.9465
-14.0494 -7.4970 0.2690 0.9383
0.5992 -7.6680 0.1299 0.9697
2.9687 13.8152 0.2387 0.9450
1.4368 11.6662 0.1986 0.9541
0.3908 11.6881 0.1975 0.9543
-1.7149 11.7580 0.2007 0.9536
-2.7999 11.7488 0.2040 0.9528
-5.1586 11.7981 0.2175 0.9498
-6.4984 11.8581 0.2284 0.9473
-7.9678 11.8888 0.2418 0.9444
-9.6185 11.9050 0.2585 0.9406
-11.5394 11.9316 0.2804 0.9358
-13.6625 0.0000 -0.0769 0.9468
0.2579 -7.7132 -0.0435 0.9696
3.6156 13.8007 -0.0803 0.9445
0.9124 11.6764 -0.0659 0.9542
-1.1648 11.5788 -0.0655 0.9545
-2.2558 11.7686 -0.0675 0.9532
-4.5510 11.8165 -0.0713 0.9506
-5.8198 11.8430 -0.0743 0.9486
-7.2117 11.8721 -0.0782 0.9460
-8.7714 11.9047 -0.0833 0.9426
-10.5615 11.9421 -0.0898 0.9382
-12.6731 11.9861 -0.0982 0.9326
-15.2463 12.0399 -0.1094 0.9252
-13.9808 -7.4604 -0.0892 0.9386
2.9685 13.8143 -0.0796 0.9450
1.4367 11.6654 -0.0662 0.9541
-0.6529 11.7091 -0.0660 0.9542
-1.7147 11.7573 -0.0669 0.9536
-3.9520 11.8040 -0.0701 0.9514
-5.1583 11.7973 -0.0725 0.9498
-11.5698 11.9631 -0.0937 0.9356
-13.8905 12.0116 -0.1034 0.9292
-13.6250 0.0000 -0.3837 0.9469
3.6154 13.7998 -0.4017 0.9445
2.3323 13.8266 -0.3948 0.9454
0.9123 11.6756 -0.3298 0.9542
-0.1303 11.6974 -0.3294 0.9543
-4.5507 11.8157 -0.3565 0.9506
-5.8194 11.8421 -0.3715 0.9486
-10.5605 11.9410 -0.4489 0.9382
-12.6719 11.9850 -0.4911 0.9326
-15.2447 12.0386 -0.5470 0.9252
-13.6143 0.6071 -0.3837 0.9469
-13.9245 -7.4303 -0.4444 0.9388
2.9683 13.8134 -0.3978 0.9450
1.4366 11.6647 -0.3309 0.9541
0.3907 11.6865 -0.3293 0.9543
-3.9517 11.8032 -0.3505 0.9514
-5.1579 11.7964 -0.3625 0.9498
-6.4974 11.8563 -0.3807 0.9473
-11.5687 11.9620 -0.4686 0.9356
-13.6034 1.2156 -0.3846 0.9468
-13.5904 0.0000 -0.6892 0.9470
-11.6348 -3.1871 -0.6118 0.9528
-17.9250 -8.5621 -1.0074 0.9235
3.6151 13.7989 -0.7234 0.9445
-1.1647 11.5773 -0.5901 0.9545
-2.2555 11.7670 -0.6076 0.9531
-3.3713 11.7902 -0.6219 0.9521
-5.8190 11.8413 -0.6691 0.9485
-7.2106 11.8702 -0.7044 0.9459
-15.1059 11.9290 -0.9762 0.9258
-13.6010 -0.6065 -0.6904 0.9469
-11.8382 -2.6822 -0.6156 0.9525
0.5942 -7.6035 -0.3868 0.9699
2.9681 13.8124 -0.7165 0.9450
-0.6528 11.7075 -0.5947 0.9541
-1.7145 11.7557 -0.6025 0.9535
-3.9514 11.8023 -0.6312 0.9514
-6.4969 11.8554 -0.6856 0.9473
-13.5687 1.2125 -0.6909 0.9469
-13.4684 -2.4265 -1.0034 0.9466
-11.1569 -3.0562 -0.8482 0.9547
-14.7003 -8.7070 -1.2527 0.9338
3.5714 13.6319 -1.0333 0.9450
2.3039 13.6585 -1.0156 0.9460
-1.1646 11.5765 -0.8531 0.9544
-2.2492 11.7341 -0.8760 0.9532
-3.3619 11.7573 -0.8966 0.9521
-8.6443 11.7322 -1.0685 0.9432
-15.0242 11.8645 -1.4037 0.9261
-10.9101 5.8218 -0.9067 0.9516
-11.4040 -2.5838 -0.8574 0.9542
0.5923 -7.5796 -0.5575 0.9700
2.9322 13.6453 -1.0233 0.9456
-0.6528 11.7068 -0.8597 0.9541
-2.7991 11.7456 -0.8853 0.9527
-3.9404 11.7694 -0.9100 0.9514
-5.1571 11.7947 -0.9439 0.9497
-6.4039 11.6856 -0.9770 0.9480
-7.8518 11.7157 -1.0341 0.9450
-9.4931 11.7498 -1.1076 0.9412
-11.4018 11.7894 -1.2026 0.9363
-13.6884 11.8368 -1.3269 0.9300
-11.9057 5.6868 -0.9674 0.9485
-10.3421 -2.8330 -1.0295 0.9578
-10.2198 -3.8059 -1.0470 0.9571
-14.2808 -6.8214 -1.5194 0.9384
-13.3399 -7.9012 -1.4885 0.9396
-10.1715 -8.7956 -1.2910 0.9474
-3.8556 -8.8181 -0.9240 0.9621
-6.3012 -18.8208 -1.9055 0.9233
-4.5221 -18.9753 -1.8727 0.9246
-2.8708 -19.6837 -1.9097 0.9232
-1.0995 -19.7183 -1.8960 0.9237
6.6254 18.4155 -1.8789 0.9244
3.5712 13.6310 -1.3528 0.9449
0.9122 11.6733 -1.1241 0.9540
-1.1645 11.5757 -1.1169 0.9543
-2.2231 11.5978 -1.1337 0.9537
-4.4849 11.6449 -1.1980 0.9511
-5.7352 11.6709 -1.2484 0.9491
-7.1068 11.6993 -1.3142 0.9465
-12.4877 11.8108 -1.6502 0.9333
-15.0225 11.8632 -1.8377 0.9260
-10.8869 5.8094 -1.1847 0.9516
-18.2910 5.8981 -1.8451 0.9257
-13.5623 0.6048 -1.3033 0.9469
-13.5842 -0.6057 -1.3054 0.9468
-10.9054 -2.4708 -1.0735 0.9561
-10.1684 -3.2789 -1.0257 0.9580
-17.3941 -7.3757 -1.8138 0.9269
-11.6488 -6.2160 -1.2676 0.9483
-10.9783 -8.6694 -1.3430 0.9453
-5.3319 -8.7775 -0.9860 0.9596
3.9098 -3.8665 -0.5279 0.9781
10.4963 16.4421 -1.8727 0.9246
9.0045 17.3367 -1.8755 0.9245
7.4351 18.0922 -1.8779 0.9244
5.8013 18.7016 -1.8798 0.9243
1.4364 11.6623 -1.1281 0.9539
0.3906 11.6842 -1.1224 0.9541
-0.6527 11.7060 -1.1256 0.9540
-1.6899 11.5867 -1.1241 0.9540
-5.0972 11.6576 -1.2215 0.9502
-6.4034 11.6847 -1.2792 0.9479
-9.4923 11.7488 -1.4501 0.9411
-13.6870 11.8356 -1.7372 0.9299
-15.7298 11.3216 -1.8606 0.9251
-16.6375 9.8544 -1.8564 0.9252
-11.5877 5.5350 -1.2329 0.9497
-18.5116 5.0709 -1.8427 0.9258
-16.6693 -0.0000 -1.9801 0.9351
-16.5668 -1.4804 -1.9757 0.9352
-13.2363 -2.3846 -1.5976 0.9473
-9.9648 -2.7296 -1.2273 0.9592
-9.8171 -3.6559 -1.2444 0.9587
-13.7932 -6.5885 -1.8158 0.9403
-13.1265 -7.7748 -1.8122 0.9404
-12.4065 -10.7284 -1.9483 0.9361
-5.9500 -8.8781 -1.2695 0.9579
-3.8559 -8.8186 -1.1433 0.9620
-0.9050 -16.2310 -1.9310 0.9366
0.2612 -7.8115 -0.9284 0.9690
3.4162 -15.8975 -1.9315 0.9366
4.8198 -15.5376 -1.9324 0.9366
6.1876 -15.0568 -1.9337 0.9365
3.1502 -4.0818 -0.6125 0.9794
3.5868 -3.2441 -0.5745 0.9807
13.9448 -8.6849 -1.9514 0.9360
14.6895 -7.4229 -1.9550 0.9359
15.8355 -4.7195 -1.9628 0.9356
16.2266 -3.2982 -1.9669 0.9355
16.6259 -0.3705 -1.9754 0.9352
16.6293 1.1132 -1.9797 0.9351
16.2390 4.0617 -1.9884 0.9348
15.8469 5.5026 -1.9926 0.9347
13.9135 9.5511 -2.0047 0.9343
11.1143 10.9912 -1.8568 0.9390
10.1078 11.9556 -1.8597 0.9389
9.0166 12.8261 -1.8624 0.9388
7.8491 13.5950 -1.8647 0.9387
6.6152 14.2554 -1.8668 0.9387
3.5709 13.6301 -1.6737 0.9448
-0.1303 11.6943 -1.3892 0.9540
-2.2230 11.5970 -1.4026 0.9535
-3.3226 11.6199 -1.4356 0.9525
-4.4846 11.6440 -1.4822 0.9510
-8.6429 11.7302 -1.7308 0.9430
-10.3804 11.7373 -1.8613 0.9388
-11.3669 10.7508 -1.8585 0.9389
-12.2587 9.6806 -1.8555 0.9390
-13.0487 8.5361 -1.8522 0.9391
-10.8869 5.8094 -1.4658 0.9515
-14.3006 6.0640 -1.8451 0.9393
-16.3457 3.7035 -1.9909 0.9347
-16.6710 0.7434 -1.9822 0.9350
-16.4665 -2.2145 -1.9736 0.9353
-13.2863 -7.0898 -1.7889 0.9411
-9.5487 -6.2464 -1.3554 0.9551
-6.6745 -6.3127 -1.0913 0.9637
-10.8401 -12.2571 -1.9437 0.9362
-5.3324 -8.7784 -1.2201 0.9595
-7.1895 -14.6301 -1.9364 0.9364
-2.5276 -8.8397 -1.0921 0.9636
-3.0619 -15.9737 -1.9320 0.9366
-0.9030 -8.9761 -1.0716 0.9643
-0.1811 -16.2540 -1.9309 0.9366
0.5913 -7.5675 -0.9017 0.9699
2.7041 -16.0313 -1.9312 0.9366
4.1218 -15.7329 -1.9319 0.9366
6.8549 -14.7720 -1.9344 0.9365
9.3842 -13.3492 -1.9383 0.9364
3.3508 -3.3137 -0.5598 0.9812
4.5295 -3.1093 -0.6526 0.9781
14.3308 -8.0624 -1.9532 0.9359
15.0200 -6.7677 -1.9569 0.9358
15.5936 -5.4147 -1.9608 0.9357
16.3749 -2.5748 -1.9690 0.9354
16.5748 -1.1095 -1.9733 0.9353
16.5813 1.8549 -1.9819 0.9350
16.3861 3.3306 -1.9862 0.9349
15.0185 7.5892 -1.9988 0.9345
14.3116 8.9133 -2.0028 0.9343
10.6222 11.4846 -1.8583 0.9389
9.5722 12.4031 -1.8611 0.9388
8.4417 13.2237 -1.8636 0.9388
7.2398 13.9391 -1.8658 0.9387
4.6623 15.0298 -1.8693 0.9386
0.3906 11.6834 -1.3886 0.9540
-2.7664 11.6083 -1.4175 0.9531
-9.4915 11.7478 -1.7940 0.9410
-10.8851 11.2551 -1.8599 0.9389
-11.8251 10.2256 -1.8570 0.9390
-12.6669 9.1171 -1.8539 0.9391
-13.4037 7.9390 -1.8505 0.9392
-11.5858 5.5341 -1.5252 0.9496
-14.5418 5.4154 -1.8433 0.9394
-16.1817 4.4326 -1.9930 0.9347
-16.4768 2.9684 -1.9887 0.9348
-13.8918 -1.2414 -1.9762 0.9452
-13.3681 -2.4084 -1.9246 0.9466
-10.3842 -7.4741 -1.8128 0.9496
-9.6636 -8.3564 -1.8102 0.9497
-8.6402 -10.6941 -1.9480 0.9460
-7.6455 -11.4079 -1.9458 0.9460
-6.5932 -12.0311 -1.9439 0.9461
-2.9918 -8.9361 -1.3352 0.9626
-3.1737 -13.3173 -1.9398 0.9462
-1.9750 -13.5414 -1.9390 0.9462
-0.5010 -8.9846 -1.2750 0.9643
0.2171 -6.4933 -0.9205 0.9741
0.9583 -7.7808 -1.1108 0.9688
4.0559 -13.0751 -1.9397 0.9462
6.3178 -12.1639 -1.9421 0.9461
7.3816 -11.5631 -1.9437 0.9461
2.9977 -3.8842 -0.6952 0.9804
3.4115 -3.0855 -0.6518 0.9816
4.8530 -3.0225 -0.8101 0.9772
12.3385 -6.2349 -1.9588 0.9457
13.6163 -2.7676 -1.9687 0.9454
13.8334 -1.5475 -1.9723 0.9453
13.9417 -0.3107 -1.9759 0.9452
13.9396 0.9331 -1.9795 0.9451
13.8265 2.1741 -1.9831 0.9450
12.8293 5.7806 -1.9938 0.9447
12.2845 6.9112 -1.9971 0.9446
11.6394 7.9900 -2.0004 0.9446
10.8930 9.0033 -2.0024 0.9445
9.2924 9.1894 -1.8517 0.9486
8.4487 9.9931 -1.8541 0.9485
6.5578 11.3584 -1.8583 0.9484
5.5259 11.9080 -1.8600 0.9483
4.4475 12.3621 -1.8615 0.9483
-10.9141 7.1397 -1.8479 0.9487
-10.8592 5.7947 -1.7440 0.9515
-13.3827 4.3154 -1.9923 0.9448
-13.6895 3.1016 -1.9888 0.9449
-13.8861 1.8675 -1.9852 0.9450
-13.9461 -0.6219 -1.9780 0.9452
-13.8100 -1.8573 -1.9743 0.9453
-10.7248 -2.4299 -1.5581 0.9565
-12.7605 -5.4109 -1.9639 0.9455
-11.3144 -6.0376 -1.8171 0.9495
-9.2753 -8.7725 -1.8089 0.9497
-5.6017 -6.3339 -1.1981 0.9664
-8.1506 -11.0620 -1.9469 0.9460
-3.8679 -6.3674 -1.0556 0.9704
-6.0481 -12.3074 -1.9430 0.9461
-1.2237 -6.3841 -0.9210 0.9741
-1.3696 -13.6140 -1.9387 0.9462
0.5907 -7.5596 -1.0744 0.9698
2.2758 -13.4919 -1.9387 0.9462
1.6473 -6.2879 -0.9210 0.9741
5.7675 -12.4287 -1.9414 0.9461
6.8562 -11.8752 -1.9429 0.9461
12.0390 -6.7730 -1.9572 0.9457
12.6141 -5.6837 -1.9603 0.9456
13.9545 0.3110 -1.9777 0.9452
13.8969 1.5546 -1.9813 0.9451
13.0628 5.1989 -1.9921 0.9448
12.5697 6.3518 -1.9955 0.9447
8.8797 9.6007 -1.8530 0.9485
8.0000 10.3659 -1.8553 0.9485
3.7093 11.9577 -1.7739 0.9507
2.6317 12.2471 -1.7749 0.9507
1.4362 11.6608 -1.6647 0.9536
0.3906 11.6826 -1.6562 0.9539
-0.6526 11.7044 -1.6610 0.9537
-1.6896 11.5851 -1.6589 0.9538
-2.7662 11.6075 -1.6907 0.9529
-3.8941 11.6310 -1.7379 0.9517
-6.3093 11.5130 -1.8602 0.9483
-7.3023 10.8959 -1.8585 0.9484
-9.0982 9.4074 -1.8543 0.9485
-10.5931 7.6245 -1.8493 0.9486
-11.5220 5.5036 -1.8092 0.9497
-13.5497 3.7117 -1.9906 0.9448
-13.8016 2.4865 -1.9870 0.9449
-12.0164 0.0000 -1.9796 0.9525
-11.9499 -1.0678 -1.9765 0.9525
-11.7889 -2.1239 -1.9734 0.9526
-9.8814 -2.7068 -1.6878 0.9593
-10.7601 -5.1396 -1.9644 0.9528
-9.5199 -5.6387 -1.8228 0.9561
-8.9454 -6.4385 -1.8157 0.9563
-5.6846 -10.3730 -1.9486 0.9532
-3.7503 -11.2014 -1.9460 0.9532
-1.7034 -11.6792 -1.9444 0.9533
0.2118 -6.3338 -1.0440 0.9746
3.4980 -11.2764 -1.9450 0.9533
4.4899 -10.9255 -1.9459 0.9532
5.4478 -10.4888 -1.9471 0.9532
3.0023 -3.2461 -0.7284 0.9822
3.3370 -3.0182 -0.7412 0.9819
5.8847 -2.9737 -1.0862 0.9736
11.4433 -3.4105 -1.9671 0.9527
11.9030 -1.3316 -1.9731 0.9526
11.9930 -0.2673 -1.9762 0.9525
11.8879 1.8693 -1.9825 0.9524
9.9952 6.8613 -1.9972 0.9520
8.6362 7.1381 -1.8458 0.9556
7.2508 8.5764 -1.8501 0.9555
4.7403 10.2151 -1.8552 0.9554
3.8148 10.6035 -1.8564 0.9553
2.8574 10.9068 -1.8574 0.9553
1.8761 11.1222 -1.8581 0.9553
0.8789 11.2479 -1.8586 0.9553
-0.1257 11.2828 -1.8588 0.9553
-1.1294 11.2265 -1.8588 0.9553
-2.1237 11.0795 -1.8585 0.9553
-3.1005 10.8431 -1.8579 0.9553
-4.0514 10.5193 -1.8570 0.9553
-4.9687 10.1110 -1.8559 0.9554
-6.6723 9.0557 -1.8530 0.9554
-7.4446 8.4178 -1.8513 0.9555
-9.3712 6.1303 -1.8448 0.9556
-11.4988 3.7079 -1.9903 0.9522
-11.7653 2.6657 -1.9873 0.9523
-11.8811 -1.5979 -1.9749 0.9526
-10.7278 -2.4306 -1.8121 0.9564
-9.7531 -3.1450 -1.6882 0.9593
-10.9863 -4.6586 -1.9659 0.9528
-10.4837 -5.5943 -1.9576 0.9530
-9.2294 -6.0376 -1.8169 0.9563
-7.9925 -7.5593 -1.8123 0.9564
-4.6804 -6.3522 -1.2998 0.9685
-5.2148 -10.6119 -1.9479 0.9532
-1.2079 -6.3015 -1.0570 0.9743
-1.1813 -11.7420 -1.9441 0.9533
-0.1315 -11.7989 -1.9439 0.9533
2.9361 -3.4729 -0.7492 0.9817
3.6496 -3.0165 -0.7800 0.9810
11.5925 -2.8995 -1.9686 0.9527
11.8226 -1.8590 -1.9716 0.9526
11.5596 3.4451 -1.9871 0.9523
10.7979 5.4564 -1.9930 0.9521
9.6759 7.2969 -1.9965 0.9521
6.8652 8.8955 -1.8511 0.9555
6.0521 9.4804 -1.8529 0.9554
5.1887 9.9900 -1.8545 0.9554
1.3790 11.1964 -1.8584 0.9553
0.3770 11.2767 -1.8588 0.9553
-0.6282 11.2660 -1.8588 0.9553
-1.6283 11.1642 -1.8586 0.9553
-2.6148 10.9723 -1.8582 0.9553
-4.5148 10.3255 -1.8565 0.9553
-6.2650 9.3480 -1.8538 0.9554
-7.0657 8.7454 -1.8522 0.9554
-7.8081 8.0736 -1.8503 0.9555
-9.6286 5.7030 -1.8436 0.9556
-11.3306 4.2196 -1.9918 0.9522
-11.6438 3.1896 -1.9888 0.9522
-11.8632 2.1373 -1.9858 0.9523
-10.5310 -0.0000 -1.9794 0.9580
-10.1151 -2.7708 -1.9713 0.9582
-9.8153 -3.6553 -1.9687 0.9583
-9.4389 -4.5086 -1.9661 0.9583
-8.9890 -5.3242 -1.9637 0.9584
-6.7092 -6.9372 -1.8140 0.9615
-6.0594 -7.4998 -1.8123 0.9615
-5.3632 -8.0025 -1.8107 0.9615
-4.6262 -8.4418 -1.8094 0.9616
-2.1433 -6.4017 -1.2689 0.9729
-1.5284 -6.4136 -1.2393 0.9735
-0.9371 -6.4251 -1.2205 0.9739
-0.5770 -10.3485 -1.9481 0.9587
0.2118 -6.3342 -1.1912 0.9745
2.8474 -9.1791 -1.8064 0.9616
2.7624 -4.3273 -0.9650 0.9793
1.4746 -1.1120 -0.3471 0.9925
9.7180 -3.8677 -1.9659 0.9583
10.0365 -2.9912 -1.9685 0.9583
10.4358 -1.1674 -1.9738 0.9582
10.5127 -0.2343 -1.9765 0.9581
10.5064 0.7033 -1.9792 0.9580
10.2434 2.5620 -1.9847 0.9579
9.6524 4.3492 -1.9899 0.9578
6.9805 6.9032 -1.8453 0.9608
5.6566 8.0466 -1.8488 0.9608
3.3366 9.2743 -1.8526 0.9607
2.4991 9.5389 -1.8535 0.9607
-0.9877 9.8176 -1.8546 0.9606
-1.8573 9.6893 -1.8544 0.9606
-3.5434 9.2003 -1.8531 0.9607
-5.1127 8.4166 -1.8510 0.9607
-5.8372 7.9223 -1.8496 0.9607
-7.1367 6.7499 -1.8464 0.9608
-8.2029 5.3661 -1.8424 0.9609
-10.5278 0.4695 -1.9808 0.9580
-10.4154 -1.4007 -1.9753 0.9581
-10.2354 -2.3190 -1.9726 0.9582
-9.6365 -4.0862 -1.9674 0.9583
-8.6101 -5.6325 -1.9339 0.9590
-7.5859 -5.9905 -1.8168 0.9614
-5.7168 -7.7589 -1.8115 0.9615
-4.9995 -8.2303 -1.8100 0.9616
-3.4565 -8.9747 -1.8077 0.9616
-1.2080 -6.3018 -1.2061 0.9742
-1.0375 -10.3134 -1.9483 0.9587
-0.0718 -6.4420 -1.2109 0.9741
0.5043 -6.4533 -1.2167 0.9740
3.2541 -9.0448 -1.8068 0.9616
4.0481 -8.7234 -1.8076 0.9616
4.8113 -8.3334 -1.8087 0.9616
3.0334 -2.9998 -0.8019 0.9828
6.5476 -2.9502 -1.3499 0.9712
9.8869 -3.4331 -1.9672 0.9583
10.1665 -2.5428 -1.9698 0.9582
10.3663 -1.6300 -1.9724 0.9582
10.4718 1.1715 -1.9806 0.9580
10.3402 2.1017 -1.9833 0.9580
1.4746 1.1120 -0.3471 0.9925
7.2772 6.5819 -1.8443 0.9609
6.0068 7.7832 -1.8480 0.9608
5.2947 8.2940 -1.8495 0.9607
4.5388 8.7389 -1.8509 0.9607
3.7454 9.1140 -1.8521 0.9607
2.0721 9.6426 -1.8538 0.9607
0.3297 9.8616 -1.8546 0.9606
-2.2868 9.5958 -1.8541 0.9606
-4.7342 8.6389 -1.8516 0.9607
-5.4806 8.1776 -1.8503 0.9607
-6.1818 7.6513 -1.8489 0.9608
-6.8322 7.0645 -1.8472 0.9608
-7.4266 6.4220 -1.8454 0.9608
-8.4468 5.0031 -1.8453 0.9608
-10.1985 2.7937 -1.9875 0.9579
-10.3927 1.8723 -1.9849 0.9579
-10.5037 0.9386 -1.9822 0.9580
-9.3637 0.0000 -1.9793 0.9624
-9.3150 -0.8324 -1.9769 0.9625
-9.1927 -1.6562 -1.9744 0.9625
-8.9980 -2.4648 -1.9721 0.9626
-8.7326 -3.2520 -1.9697 0.9626
-7.9996 -4.7382 -1.9653 0.9627
-7.5383 -5.4257 -1.9633 0.9627
-6.5764 -5.6868 -1.8378 0.9651
-5.9729 -6.1759 -1.8161 0.9655
-4.1197 -7.5175 -1.8120 0.9656
-3.4323 -7.8498 -1.8110 0.9656
-2.7187 -8.1202 -1.8101 0.9656
-1.9844 -8.3268 -1.8094 0.9656
1.7979 -8.3665 -1.8089 0.9656
2.0994 -4.0421 -0.9628 0.9816
2.4243 -3.7976 -0.9523 0.9817
3.2079 -2.9014 -0.9143 0.9825
1.4746 -1.1120 -0.3904 0.9925
5.6572 -2.8587 -1.3398 0.9744
8.6473 -3.4415 -1.9673 0.9627
8.9295 -2.6613 -1.9696 0.9626
9.2819 -1.0383 -1.9743 0.9625
9.3419 0.6254 -1.9791 0.9624
9.2605 1.4561 -1.9815 0.9624
9.1052 2.2774 -1.9840 0.9624
8.5774 3.8648 -1.9886 0.9623
8.2086 4.6181 -1.9909 0.9622
1.5127 1.0384 -0.3879 0.9925
6.1998 6.1311 -1.8431 0.9650
5.6344 6.6645 -1.8447 0.9649
4.3701 7.5693 -1.8475 0.9649
2.9622 8.2335 -1.8496 0.9649
1.4564 8.6344 -1.8509 0.9648
-0.0976 8.7584 -1.8515 0.9648
-0.8767 8.7147 -1.8514 0.9648
-2.4071 8.4180 -1.8507 0.9648
-3.1456 8.1675 -1.8501 0.9648
-3.0306 4.9891 -1.2339 0.9764
-5.7842 6.5403 -1.8456 0.9649
-6.3381 5.9946 -1.8441 0.9650
-6.8403 5.4017 -1.8424 0.9650
-8.6671 3.6752 -1.9899 0.9622
-8.9495 2.8859 -1.9877 0.9623
-9.2972 1.2504 -1.9829 0.9624
-9.3601 0.4174 -1.9805 0.9624
-9.1043 -2.0628 -1.9732 0.9626
-8.5741 -3.6357 -1.9686 0.9626
-7.7765 -5.0871 -1.9643 0.9627
-6.2449 -5.9064 -1.8169 0.9655
-3.0784 -7.9929 -1.8105 0.9656
-2.3538 -8.2316 -1.8097 0.9656
-1.2080 -6.3022 -1.3564 0.9741
3.6052 -7.7691 -1.8104 0.9656
2.2513 -3.8994 -0.9518 0.9818
1.5127 -1.0384 -0.3879 0.9925
5.0304 -2.8301 -1.2201 0.9767
9.2209 -1.4499 -1.9731 0.9626
9.3247 -0.6242 -1.9755 0.9625
9.3547 0.2085 -1.9779 0.9625
9.0002 2.6823 -1.9851 0.9623
8.7360 3.4768 -1.9875 0.9623
1.4745 1.1120 -0.3904 0.9925
4.0299 7.7589 -1.8481 0.9649
-2.0300 8.5180 -1.8510 0.9648
-2.7792 8.3011 -1.8504 0.9648
-3.5056 8.0175 -1.8497 0.9649
-2.7985 5.1066 -1.2309 0.9765
-4.8662 7.2608 -1.8476 0.9649
-6.5960 5.7037 -1.8432 0.9650
-8.4995 4.0599 -1.9910 0.9622
-8.8172 3.2836 -1.9888 0.9623
-8.4213 -0.0000 -1.9792 0.9660
-8.3786 -0.7487 -1.9770 0.9660
-8.2696 -1.4898 -1.9748 0.9661
-8.0953 -2.2175 -1.9727 0.9661
-7.5581 -3.6102 -1.9686 0.9662
-6.3179 -5.4633 -1.9630 0.9663
-5.5138 -5.7012 -1.8640 0.9679
-3.7096 -6.7692 -1.8141 0.9688
-3.0908 -7.0688 -1.8132 0.9688
-2.4483 -7.3127 -1.8124 0.9688
0.2118 -6.3351 -1.4897 0.9743
1.6192 -7.5351 -1.8113 0.9688
2.2839 -7.3628 -1.8118 0.9688
1.9173 -3.6914 -0.9776 0.9831
2.1908 -3.4319 -0.9569 0.9834
2.4838 -3.2183 -0.9554 0.9834
5.6943 -2.8775 -1.4995 0.9741
7.7817 -3.0971 -1.9684 0.9662
8.2247 -1.6717 -1.9725 0.9661
8.4017 0.5624 -1.9790 0.9660
8.1869 2.0477 -1.9834 0.9659
1.5127 1.0384 -0.4312 0.9925
5.0624 5.9878 -1.8428 0.9683
4.5126 6.4192 -1.8441 0.9683
3.9258 6.7997 -1.8453 0.9683
1.9926 7.6058 -1.8479 0.9682
1.3081 7.7551 -1.8484 0.9682
0.6128 7.8422 -1.8487 0.9682
-0.0876 7.8662 -1.8489 0.9682
-1.4808 7.7249 -1.8486 0.9682
-2.8254 7.3361 -1.8476 0.9682
-3.4657 7.0526 -1.8468 0.9682
-3.0268 4.9828 -1.3702 0.9763
-5.1967 5.8760 -1.8436 0.9683
-7.4730 3.9877 -1.9907 0.9658
-7.7905 3.3035 -1.9888 0.9658
-8.2356 1.8659 -1.9846 0.9659
-8.3599 1.1243 -1.9825 0.9659
-7.7153 -3.2716 -1.9696 0.9662
-6.9992 -4.5786 -1.9657 0.9662
-6.5579 -5.1787 -1.9639 0.9662
-6.0036 -5.6782 -1.9421 0.9666
-5.1222 -5.7917 -1.8171 0.9687
-2.7722 -7.1979 -1.8128 0.9688
-2.1197 -7.4132 -1.8121 0.9688
1.1959 -7.0897 -1.6898 0.9709
1.6412 -6.2644 -1.5220 0.9737
2.3326 -3.3182 -0.9533 0.9835
2.6350 -3.1167 -0.9592 0.9834
2.9188 -2.8865 -0.9648 0.9833
3.4360 -2.8399 -1.0477 0.9819
5.0496 -2.8409 -1.3617 0.9765
6.3517 -2.8619 -1.6373 0.9718
7.9160 -2.7487 -1.9694 0.9662
8.2955 -1.3044 -1.9736 0.9661
8.3878 -0.5615 -1.9757 0.9660
8.4138 0.1875 -1.9779 0.9660
8.2655 1.6800 -1.9823 0.9659
8.0919 2.4116 -1.9845 0.9659
1.5778 0.9826 -0.4368 0.9924
1.4746 1.1120 -0.4341 0.9924
5.8083 5.2533 -1.8406 0.9683
3.6200 6.9698 -1.8458 0.9682
2.9868 7.2681 -1.8468 0.9682
0.9615 7.8065 -1.8486 0.9682
-1.1352 7.7838 -1.8487 0.9682
-1.8232 7.6506 -1.8484 0.9682
-2.4963 7.4559 -1.8479 0.9682
-3.1488 7.2015 -1.8472 0.9682
-4.9315 6.1038 -1.8442 0.9683
-5.9267 5.1251 -1.8415 0.9683
-6.6677 4.7991 -1.9308 0.9668
-7.2914 4.3187 -1.9917 0.9658
-7.6395 3.6491 -1.9898 0.9658
-8.3061 1.4964 -1.9835 0.9659
-7.6438 0.0000 -1.9791 0.9689
-7.6058 -0.6797 -1.9771 0.9689
-7.5076 -1.3526 -1.9751 0.9690
-7.1349 -2.6571 -1.9713 0.9690
-6.1628 -4.4357 -1.9660 0.9691
-5.2705 -5.4496 -1.9629 0.9692
-4.6140 -5.7108 -1.9009 0.9701
-3.9067 -5.8293 -1.8169 0.9714
-1.6240 -6.8144 -1.8138 0.9715
-0.3899 -6.9919 -1.8131 0.9715
0.8560 -6.9502 -1.8131 0.9715
1.4714 -6.8473 -1.8134 0.9715
2.0754 -6.6906 -1.8138 0.9715
2.0208 -3.1656 -0.9724 0.9846
2.3311 -3.0205 -0.9879 0.9844
2.6778 -2.8952 -1.0211 0.9838
3.1099 -2.8127 -1.0857 0.9828
1.4746 -1.1120 -0.4782 0.9924
1.5778 -0.9826 -0.4813 0.9923
5.6758 -2.8681 -1.6465 0.9741
7.2959 -2.1744 -1.9712 0.9690
7.6336 -0.1701 -1.9770 0.9689
7.6261 0.5105 -1.9790 0.9689
7.2418 2.5146 -1.9848 0.9688
1.5127 1.0384 -0.4751 0.9924
4.5912 5.4306 -1.8412 0.9710
1.1861 7.0314 -1.8463 0.9710
0.5556 7.1102 -1.8466 0.9710
-2.5619 6.6517 -1.8456 0.9710
-3.0230 4.9765 -1.5076 0.9762
-5.1650 4.8850 -1.8407 0.9711
-6.4360 4.2102 -1.9913 0.9687
-7.3000 2.3540 -1.9859 0.9688
-7.4734 1.6932 -1.9840 0.9688
-7.5869 1.0203 -1.9821 0.9689
-7.6323 -0.3403 -1.9781 0.9689
-7.0062 -2.9709 -1.9704 0.9690
-6.7078 -3.5794 -1.9686 0.9691
-5.5101 -5.2114 -1.9637 0.9691
-5.0207 -5.6770 -1.9623 0.9692
-3.0925 -6.2930 -1.8155 0.9714
-2.5190 -6.5404 -1.8147 0.9715
-1.9262 -6.7363 -1.8140 0.9715
-0.7010 -6.9680 -1.8132 0.9715
-0.0780 -7.0021 -1.8131 0.9715
0.5455 -6.9812 -1.8131 0.9715
1.1648 -6.9055 -1.8132 0.9715
1.6413 -6.2649 -1.6768 0.9736
1.8043 -3.8882 -1.1098 0.9824
1.9257 -3.3354 -0.9972 0.9842
2.4984 -2.9552 -1.0020 0.9841
3.3896 -2.8016 -1.1386 0.9820
1.5127 -1.0384 -0.4751 0.9924
7.5316 -1.1843 -1.9740 0.9690
7.6374 0.1702 -1.9780 0.9689
7.3430 2.1885 -1.9839 0.9688
6.8517 3.4623 -1.9877 0.9688
1.5778 0.9826 -0.4813 0.9923
1.4746 1.1120 -0.4782 0.9924
4.8269 5.2188 -1.8406 0.9711
4.3462 5.6316 -1.8419 0.9710
2.1118 6.8078 -1.8455 0.9710
0.8717 7.0779 -1.8464 0.9710
0.2383 7.1283 -1.8467 0.9710
-0.3971 7.1214 -1.8467 0.9710
-1.0293 7.0573 -1.8466 0.9710
-1.6531 6.9366 -1.8463 0.9710
-2.2634 6.7603 -1.8459 0.9710
-2.7874 5.0863 -1.5017 0.9763
-4.4722 5.5354 -1.8425 0.9710
-4.9440 5.1120 -1.8413 0.9710
-5.5340 4.7854 -1.8943 0.9702
-6.6143 3.9177 -1.9904 0.9687
-7.1913 2.6781 -1.9869 0.9688
-6.9908 -0.0000 -1.9790 0.9714
-6.8674 -1.2372 -1.9754 0.9714
-6.7240 -1.8419 -1.9736 0.9714
-5.9831 -3.5438 -1.9686 0.9715
-5.6395 -4.0591 -1.9670 0.9715
-5.2520 -4.5416 -1.9656 0.9715
-4.3578 -5.3937 -1.9630 0.9716
-3.8311 -5.7164 -1.9481 0.9718
-2.5708 -5.8796 -1.8166 0.9737
-1.4867 -6.2382 -1.8155 0.9737
-0.3569 -6.4009 -1.8149 0.9737
0.2118 -6.3359 -1.7947 0.9740
0.7836 -6.3627 -1.8148 0.9737
1.3470 -6.2684 -1.8151 0.9737
2.2344 -2.8952 -1.0353 0.9849
2.6029 -2.8142 -1.0852 0.9842
3.0688 -2.7755 -1.1714 0.9829
1.4746 -1.1120 -0.5228 0.9924
1.5778 -0.9826 -0.5262 0.9923
5.7417 -2.9014 -1.8212 0.9736
6.9342 -0.7757 -1.9753 0.9714
6.9821 -0.1556 -1.9771 0.9714
6.9117 1.0868 -1.9807 0.9713
6.7937 1.6992 -1.9825 0.9713
6.6215 2.2992 -1.9843 0.9713
1.6212 0.9121 -0.5266 0.9923
5.4182 4.4782 -1.9900 0.9712
3.7400 5.3202 -1.8410 0.9733
3.2533 5.6349 -1.8420 0.9733
2.7401 5.9048 -1.8428 0.9733
0.5077 6.4968 -1.8448 0.9733
-0.6523 6.4841 -1.8449 0.9733
-1.2267 6.3997 -1.8447 0.9733
-2.3409 6.0781 -1.8439 0.9733
-3.0191 4.9701 -1.6463 0.9761
-3.8588 5.2372 -1.8416 0.9733
-5.0365 4.7635 -1.9625 0.9716
-5.5193 4.3585 -1.9909 0.9712
-5.8830 3.8485 -1.9902 0.9712
-6.1974 3.3070 -1.9886 0.9712
-6.4619 2.7401 -1.9870 0.9712
-6.6744 2.1522 -1.9853 0.9713
-6.9806 -0.3113 -1.9781 0.9714
-6.8024 -1.5412 -1.9745 0.9714
-6.6323 -2.1386 -1.9728 0.9714
-6.1375 -3.2751 -1.9694 0.9715
-5.4511 -4.3047 -1.9663 0.9715
-5.0427 -4.7693 -1.9649 0.9716
-4.1120 -5.5809 -1.9624 0.9716
-2.8323 -5.7635 -1.8180 0.9737
-2.3059 -5.9871 -1.8163 0.9737
-1.7633 -6.1666 -1.8157 0.9737
-1.2071 -6.2976 -1.8153 0.9737
-0.0714 -6.4102 -1.8148 0.9737
1.0663 -6.3218 -1.8149 0.9737
2.1712 -6.0350 -1.8157 0.9737
1.8743 -3.2464 -1.0612 0.9845
2.0874 -2.9693 -1.0275 0.9850
2.8232 -2.7919 -1.1240 0.9836
3.3498 -2.7687 -1.2303 0.9821
1.5127 -1.0384 -0.5194 0.9924
6.5768 -2.2837 -1.9709 0.9715
6.7599 -1.6908 -1.9726 0.9714
6.8897 -1.0833 -1.9744 0.9714
6.9853 0.1557 -1.9780 0.9714
6.7143 2.0011 -1.9834 0.9713
4.4117 4.7699 -1.8393 0.9734
3.9721 5.1468 -1.8405 0.9733
3.5002 5.4830 -1.8415 0.9733
2.4749 6.0222 -1.8432 0.9733
1.9297 6.2207 -1.8438 0.9733
0.2178 6.5132 -1.8449 0.9733
-0.3628 6.5069 -1.8449 0.9733
-0.9405 6.4484 -1.8448 0.9733
-3.6226 5.4052 -1.8421 0.9733
-4.6147 4.7715 -1.8792 0.9728
-6.0463 3.5813 -1.9894 0.9712
-6.3360 3.0265 -1.9878 0.9712
-6.5748 2.4485 -1.9861 0.9713
-6.1899 -1.6956 -1.9740 0.9735
-6.0095 -2.2380 -1.9724 0.9735
-5.1929 -3.7376 -1.9679 0.9736
-4.8364 -4.1822 -1.9666 0.9736
-3.5534 -5.3021 -1.9632 0.9736
-2.5115 -5.7439 -1.9282 0.9741
-1.9301 -5.7650 -1.8699 0.9749
-1.3781 -5.7826 -1.8284 0.9754
0.7218 -5.8609 -1.8163 0.9756
2.1941 -2.8430 -1.1046 0.9851
2.5658 -2.7741 -1.1623 0.9843
1.4745 -1.1120 -0.5681 0.9923
5.7142 -2.8875 -1.9692 0.9736
6.3609 1.0002 -1.9805 0.9734
1.5806 0.8892 -0.5578 0.9924
4.5918 4.5410 -1.9863 0.9733
2.9922 5.1827 -1.8407 0.9753
2.5201 5.4307 -1.8415 0.9753
1.5183 5.7952 -1.8426 0.9752
0.4669 5.9746 -1.8433 0.9752
-2.1529 5.5899 -1.8424 0.9752
-2.6410 5.3744 -1.8419 0.9753
-4.6991 4.4443 -1.9894 0.9733
-5.4121 3.5405 -1.9892 0.9733
-5.7017 3.0425 -1.9878 0.9733
-6.2882 1.4247 -1.9831 0.9734
-6.4250 -0.2865 -1.9781 0.9734
-5.9015 -2.5024 -1.9716 0.9735
-5.6510 -3.0154 -1.9701 0.9736
-5.0195 -3.9639 -1.9673 0.9736
-4.6438 -4.3920 -1.9660 0.9736
-4.2319 -4.7850 -1.9648 0.9736
-3.7871 -5.1399 -1.9637 0.9736
-3.3129 -5.4538 -1.9627 0.9736
-0.5911 -5.8759 -1.8164 0.9756
-0.0658 -5.9047 -1.8163 0.9756
0.4600 -5.8871 -1.8163 0.9756
0.9836 -5.8312 -1.8189 0.9756
1.5275 -5.8305 -1.8539 0.9751
1.7496 -3.7703 -1.2784 0.9828
1.8221 -3.1559 -1.1209 0.9849
2.7868 -2.7560 -1.2055 0.9837
3.4266 -2.8322 -1.3674 0.9816
5.8394 -2.6311 -1.9700 0.9736
6.0551 -2.1025 -1.9715 0.9735
6.3965 0.7155 -1.9797 0.9734
6.1785 1.8414 -1.9830 0.9734
5.9950 2.3860 -1.9846 0.9734
5.7634 2.9124 -1.9862 0.9733
1.5588 0.9708 -0.5648 0.9923
1.4745 1.1120 -0.5681 0.9923
4.7976 4.3392 -1.9897 0.9733
4.3244 4.6755 -1.9589 0.9737
3.6536 4.7341 -1.8393 0.9753
2.7590 5.3120 -1.8411 0.9753
2.2761 5.5386 -1.8418 0.9753
1.7747 5.7210 -1.8424 0.9752
1.2587 5.8578 -1.8428 0.9752
0.2003 5.9897 -1.8433 0.9752
-4.4899 4.6426 -1.9865 0.9733
-5.2508 3.7793 -1.9899 0.9733
-5.5625 3.2947 -1.9885 0.9733
-6.0494 2.2528 -1.9855 0.9733
-6.3428 1.1427 -1.9823 0.9734
-6.4139 0.5732 -1.9806 0.9734
-5.9533 0.0000 -1.9789 0.9752
-5.9251 -0.5295 -1.9774 0.9752
-5.7285 -1.5692 -1.9743 0.9753
-5.5619 -2.0713 -1.9728 0.9753
-5.0992 -3.0203 -1.9700 0.9753
-4.8070 -3.4598 -1.9687 0.9753
-4.4771 -3.8715 -1.9675 0.9754
-3.7156 -4.5988 -1.9653 0.9754
-3.2899 -4.9089 -1.9643 0.9754
-2.8387 -5.1800 -1.9635 0.9754
-2.3655 -5.4101 -1.9627 0.9754
-1.3681 -5.7407 -1.9617 0.9754
0.1937 -5.7931 -1.9267 0.9759
0.7143 -5.7996 -1.9424 0.9757
1.8983 -2.9736 -1.1727 0.9852
2.1766 -2.8203 -1.1842 0.9851
3.0534 -2.7616 -1.3685 0.9828
1.4745 -1.1120 -0.6139 0.9922
1.5588 -0.9708 -0.6104 0.9923
5.2893 -2.6728 -1.9699 0.9753
5.6875 -1.6951 -1.9727 0.9753
5.8201 -1.1830 -1.9742 0.9753
5.9069 -0.6608 -1.9757 0.9753
5.9397 0.3976 -1.9788 0.9752
5.8853 0.9254 -1.9804 0.9752
5.4441 2.4530 -1.9849 0.9751
1.5127 1.0384 -0.6099 0.9923
4.6120 3.8119 -1.9889 0.9751
4.2570 4.2098 -1.9901 0.9751
3.8549 4.5596 -1.9847 0.9751
3.2549 4.6301 -1.8813 0.9764
2.7716 4.8006 -1.8426 0.9769
0.9216 5.4634 -1.8417 0.9769
-1.0431 5.4420 -1.8419 0.9769
-1.5231 5.3267 -1.8416 0.9769
-2.4422 4.9697 -1.8407 0.9769
-3.9632 4.4812 -1.9886 0.9751
-5.4997 2.3321 -1.9857 0.9751
-5.8174 1.3181 -1.9828 0.9752
-5.9071 0.7944 -1.9812 0.9752
-5.9498 0.2653 -1.9797 0.9752
-5.4621 -2.3161 -1.9721 0.9753
-5.2305 -2.7911 -1.9707 0.9753
-4.6466 -3.6694 -1.9681 0.9754
-3.9178 -4.4299 -1.9658 0.9754
-0.0645 -5.7888 -1.9244 0.9759
1.4955 -5.7082 -1.9615 0.9754
1.9980 -5.5535 -1.9619 0.9754
1.8006 -3.1187 -1.1970 0.9849
2.0031 -2.8495 -1.1578 0.9854
2.3589 -2.7901 -1.2145 0.9847
3.3524 -2.7709 -1.4457 0.9818
1.5127 -1.0384 -0.6099 0.9923
1.5806 -0.8893 -0.6028 0.9924
5.4049 -2.4354 -1.9706 0.9753
5.6043 -1.9460 -1.9720 0.9753
5.7595 -1.4405 -1.9735 0.9753
5.9184 0.6621 -1.9796 0.9752
5.8405 1.1871 -1.9811 0.9752
5.7161 1.7036 -1.9826 0.9752
5.5459 2.2072 -1.9841 0.9752
5.3313 2.6940 -1.9856 0.9751
1.5588 0.9708 -0.6104 0.9923
4.4390 4.0148 -1.9895 0.9751
4.0596 4.3892 -1.9874 0.9751
2.5513 4.9122 -1.8399 0.9769
2.1047 5.1216 -1.8406 0.9769
0.6773 5.4995 -1.8419 0.9769
-0.3085 5.5330 -1.8421 0.9769
-0.7997 5.4833 -1.8420 0.9769
-1.2845 5.3898 -1.8418 0.9769
-1.7587 5.2530 -1.8414 0.9769
-2.2187 5.0744 -1.8409 0.9769
-3.7550 4.6477 -1.9861 0.9751
-4.1642 4.3057 -1.9911 0.9751
-4.8565 3.4955 -1.9890 0.9751
-5.8681 1.0572 -1.9820 0.9752
-5.9344 0.5303 -1.9805 0.9752
-5.5077 -0.4922 -1.9774 0.9768
-5.4381 -0.9797 -1.9760 0.9768
-5.3255 -1.4588 -1.9746 0.9768
-4.9756 -2.3767 -1.9719 0.9768
-4.7413 -2.8082 -1.9706 0.9769
-4.4697 -3.2171 -1.9694 0.9769
-4.1632 -3.6001 -1.9682 0.9769
-3.0596 -4.5652 -1.9653 0.9769
-2.6401 -4.8175 -1.9645 0.9769
-1.7430 -5.2060 -1.9633 0.9769
-0.7920 -5.4305 -1.9625 0.9770
0.1833 -5.4841 -1.9623 0.9770
0.6708 -5.4462 -1.9623 0.9770
1.1529 -5.3654 -1.9625 0.9770
1.6262 -5.2423 -1.9628 0.9770
2.0868 -5.0779 -1.9632 0.9769
1.7567 -3.3824 -1.3630 0.9839
2.1641 -2.8041 -1.2667 0.9851
3.0537 -2.7619 -1.4724 0.9827
1.4745 -1.1120 -0.6604 0.9922
4.9180 -2.4852 -1.9705 0.9769
5.1230 -2.0389 -1.9718 0.9768
5.2877 -1.5759 -1.9731 0.9768
5.4108 -1.0998 -1.9745 0.9768
5.4911 -0.6143 -1.9759 0.9768
5.5280 -0.1232 -1.9773 0.9768
5.5210 0.3696 -1.9788 0.9768
5.4702 0.8601 -1.9802 0.9768
1.5806 0.8892 -0.6486 0.9923
4.2853 3.5419 -1.9882 0.9767
3.9553 3.9115 -1.9893 0.9766
3.1918 4.5405 -1.9848 0.9767
1.3042 4.9781 -1.8403 0.9784
0.8561 5.0753 -1.8406 0.9784
-0.5153 5.1219 -1.8409 0.9784
-1.4149 4.9483 -1.8405 0.9784
-2.3239 4.7290 -1.8843 0.9779
-3.6881 4.1702 -1.9909 0.9766
-4.0427 3.8236 -1.9899 0.9766
-5.2798 1.7025 -1.9838 0.9767
-5.4066 1.2250 -1.9824 0.9767
-5.4903 0.7384 -1.9810 0.9767
-5.5302 0.2466 -1.9796 0.9768
-5.5262 -0.2464 -1.9782 0.9768
-4.6100 -3.0157 -1.9700 0.9769
-4.3207 -3.4120 -1.9688 0.9769
-3.9976 -3.7809 -1.9677 0.9769
-3.2606 -4.4254 -1.9657 0.9769
-2.4224 -4.9295 -1.9642 0.9769
-0.5493 -5.4600 -1.9624 0.9770
-0.0611 -5.4869 -1.9623 0.9770
0.9127 -5.4111 -1.9624 0.9770
1.3909 -5.3091 -1.9626 0.9770
2.3469 -2.7759 -1.2999 0.9847
2.7969 -2.7659 -1.4067 0.9834
3.3528 -2.7712 -1.5555 0.9817
1.5127 -1.0384 -0.6562 0.9922
5.2105 -1.8093 -1.9724 0.9768
5.4563 -0.8580 -1.9752 0.9768
5.5150 -0.3692 -1.9766 0.9768
5.4284 1.1034 -1.9809 0.9767
5.3124 1.5833 -1.9823 0.9767
5.1540 2.0512 -1.9837 0.9767
1.5588 0.9708 -0.6567 0.9922
4.1245 3.7304 -1.9887 0.9767
3.7781 4.0849 -1.9898 0.9766
3.3944 4.3983 -1.9868 0.9767
2.4127 4.6454 -1.8719 0.9780
0.1720 5.1449 -1.8409 0.9784
-1.6338 4.8799 -1.8403 0.9784
-2.0690 4.7320 -1.8469 0.9783
-2.5898 4.7258 -1.9271 0.9774
-3.4981 4.3296 -1.9905 0.9766
-3.8693 4.0008 -1.9904 0.9766
-4.5126 3.2479 -1.9883 0.9767
-5.2005 1.9367 -1.9845 0.9767
-5.1398 -0.4593 -1.9775 0.9781
-5.0751 -0.9143 -1.9762 0.9782
-4.8262 -1.7973 -1.9736 0.9782
-4.6441 -2.2183 -1.9723 0.9782
-4.4255 -2.6213 -1.9711 0.9782
-4.1723 -3.0030 -1.9700 0.9782
-3.8863 -3.3606 -1.9689 0.9782
-3.5699 -3.6913 -1.9679 0.9782
-3.2257 -3.9925 -1.9670 0.9783
-2.0540 -4.6977 -1.9648 0.9783
-1.6273 -4.8605 -1.9643 0.9783
0.1712 -5.1204 -1.9633 0.9783
0.6263 -5.0850 -1.9634 0.9783
1.5183 -4.8945 -1.9638 0.9783
1.8796 -2.9443 -1.3386 0.9851
2.5585 -2.7663 -1.4440 0.9840
3.0541 -2.7622 -1.5781 0.9825
4.3633 -2.7175 -1.9699 0.9782
4.5905 -2.3197 -1.9710 0.9782
5.1245 -0.5733 -1.9761 0.9782
5.1042 0.8026 -1.9801 0.9781
4.8876 1.6972 -1.9827 0.9781
4.2734 2.9335 -1.9864 0.9780
3.3518 3.9645 -1.9895 0.9780
2.9849 4.2460 -1.9890 0.9780
2.1504 4.6340 -1.9577 0.9784
1.2237 4.6710 -1.8504 0.9795
-0.4806 4.7770 -1.8399 0.9796
-1.3475 4.7124 -1.8783 0.9792
-1.8142 4.7103 -1.9343 0.9786
-2.2851 4.6500 -1.9855 0.9781
-2.6942 4.4352 -1.9887 0.9780
-3.0816 4.1824 -1.9908 0.9780
-3.4402 3.8899 -1.9900 0.9780
-4.5720 2.4397 -1.9859 0.9780
-4.7681 2.0218 -1.9847 0.9781
-4.9260 1.5884 -1.9835 0.9781
-5.1604 0.2301 -1.9795 0.9781
-5.1569 -0.2299 -1.9782 0.9781
-5.1125 -0.6876 -1.9768 0.9781
-5.0276 -1.1391 -1.9755 0.9782
-4.9030 -1.5810 -1.9742 0.9782
-4.7398 -2.0098 -1.9729 0.9782
-4.5393 -2.4222 -1.9717 0.9782
-4.3031 -2.8150 -1.9705 0.9782
-4.0332 -3.1850 -1.9694 0.9782
-3.7318 -3.5295 -1.9684 0.9782
-3.0440 -4.1314 -1.9666 0.9783
-1.4090 -4.9277 -1.9641 0.9783
-0.5129 -5.0979 -1.9635 0.9783
1.2986 -4.9569 -1.9637 0.9783
1.7350 -4.8225 -1.9640 0.9783
2.1578 -4.6500 -1.9645 0.9783
1.7790 -3.0813 -1.3635 0.9849
1.9812 -2.8183 -1.3202 0.9854
2.3460 -2.7749 -1.3925 0.9846
2.7847 -2.7539 -1.5009 0.9834
3.3532 -2.7715 -1.6671 0.9815
4.2367 -2.9084 -1.9693 0.9782
4.4813 -2.5211 -1.9704 0.9782
4.6907 -2.1135 -1.9716 0.9782
4.9974 -1.2499 -1.9741 0.9782
5.1467 -0.3445 -1.9767 0.9781
5.1604 0.1150 -1.9781 0.9781
5.1332 0.5742 -1.9794 0.9781
5.0651 1.0295 -1.9807 0.9781
4.9567 1.4773 -1.9821 0.9781
4.6221 2.3357 -1.9846 0.9781
4.3986 2.7395 -1.9858 0.9780
4.1397 3.1219 -1.9870 0.9780
3.8475 3.4798 -1.9880 0.9780
2.3867 4.5952 -1.9843 0.9781
1.9087 4.6446 -1.9243 0.9787
1.4465 4.6631 -1.8710 0.9793
1.0084 4.6929 -1.8395 0.9796
-0.6929 4.7507 -1.8398 0.9796
-1.5775 4.7117 -1.9041 0.9789
-3.6093 3.7319 -1.9896 0.9780
-3.9252 3.3943 -1.9886 0.9780
-4.2096 3.0299 -1.9876 0.9780
-4.4600 2.6417 -1.9865 0.9780
-4.6747 2.2329 -1.9853 0.9781
-4.8519 1.8069 -1.9841 0.9781
-4.7523 -0.8562 -1.9763 0.9793
-4.5196 -1.6831 -1.9739 0.9794
-3.3438 -3.4574 -1.9686 0.9794
-2.3088 -4.2130 -1.9662 0.9795
-1.9241 -4.4005 -1.9656 0.9795
-1.1129 -4.6698 -1.9648 0.9795
1.4223 -4.5850 -1.9647 0.9795
2.2137 -4.2621 -1.9656 0.9795
1.8781 -2.9420 -1.4285 0.9850
3.0544 -2.7626 -1.6856 0.9824
4.4781 -1.7822 -1.9726 0.9794
4.6217 -1.3774 -1.9738 0.9794
4.7288 -0.9612 -1.9750 0.9794
4.7790 0.7515 -1.9800 0.9793
4.2265 2.3778 -1.9848 0.9793
3.4536 3.4153 -1.9879 0.9792
0.3652 4.6737 -1.9187 0.9799
-0.0522 4.6818 -1.9162 0.9800
-0.8990 4.6899 -1.9544 0.9796
-1.7449 4.5304 -1.9869 0.9792
-2.8842 3.9145 -1.9900 0.9792
-3.2200 3.6409 -1.9893 0.9792
-3.8111 3.0096 -1.9875 0.9792
-4.0618 2.6571 -1.9865 0.9792
-4.2798 2.2838 -1.9854 0.9793
-4.4636 1.8927 -1.9843 0.9793
-4.7228 1.0700 -1.9819 0.9793
-4.7963 0.6450 -1.9807 0.9793
-3.1857 -3.6022 -1.9681 0.9794
-2.8513 -3.8698 -1.9673 0.9794
-2.4946 -4.1067 -1.9666 0.9794
-1.7259 -4.4813 -1.9654 0.9795
0.3739 -4.7848 -1.9643 0.9795
0.7983 -4.7328 -1.9644 0.9795
1.6253 -4.5175 -1.9649 0.9795
2.0213 -4.3559 -1.9654 0.9795
1.7766 -3.0772 -1.4543 0.9848
2.3473 -2.7764 -1.4880 0.9844
2.7850 -2.7542 -1.6031 0.9832
3.3536 -2.7719 -1.7807 0.9814
3.9682 -2.7240 -1.9699 0.9794
4.1971 -2.3612 -1.9709 0.9794
4.6799 -1.1705 -1.9744 0.9794
4.7684 -0.7498 -1.9756 0.9794
4.7423 0.9639 -1.9806 0.9793
4.6405 1.3830 -1.9818 0.9793
3.6014 3.2573 -1.9874 0.9792
2.9695 3.8477 -1.9892 0.9792
1.8445 4.4884 -1.9860 0.9792
1.4364 4.6305 -1.9842 0.9793
1.0006 4.6564 -1.9493 0.9796
0.5750 4.6687 -1.9252 0.9799
-1.1178 4.6903 -1.9734 0.9794
-1.5405 4.6011 -1.9859 0.9792
-2.3378 4.2659 -1.9909 0.9792
-2.7075 4.0398 -1.9904 0.9792
-3.0552 3.7814 -1.9897 0.9792
-3.3782 3.4931 -1.9888 0.9792
-3.9404 2.8361 -1.9870 0.9792
-4.1750 2.4728 -1.9860 0.9792
-4.5421 1.6915 -1.9837 0.9793
-4.8188 0.4306 -1.9801 0.9793
-4.5404 0.0000 -1.9788 0.9804
-4.5197 -0.4039 -1.9776 0.9804
-4.4631 -0.8041 -1.9764 0.9804
-4.3713 -1.1974 -1.9753 0.9804
-4.0851 -1.9513 -1.9730 0.9804
-3.8931 -2.3059 -1.9720 0.9805
-3.6706 -2.6419 -1.9710 0.9805
-3.1411 -3.2478 -1.9691 0.9805
-2.8384 -3.5131 -1.9683 0.9805
-1.8076 -4.1341 -1.9664 0.9805
-1.0455 -4.3873 -1.9656 0.9805
-0.2510 -4.5022 -1.9652 0.9805
0.9474 -4.4089 -1.9653 0.9805
1.7146 -4.1723 -1.9659 0.9805
1.8812 -2.9469 -1.5237 0.9849
3.0666 -3.3156 -1.9683 0.9805
3.0548 -2.7629 -1.7951 0.9822
3.6089 -2.7216 -1.9700 0.9805
4.0383 -2.0406 -1.9719 0.9805
4.2061 -1.6740 -1.9729 0.9804
4.3408 -1.2937 -1.9740 0.9804
4.5363 -0.1011 -1.9775 0.9804
4.5300 0.3032 -1.9787 0.9804
4.4877 0.7057 -1.9799 0.9804
4.4097 1.1029 -1.9810 0.9804
4.2965 1.4919 -1.9822 0.9804
4.1490 1.8695 -1.9833 0.9803
3.7558 2.5782 -1.9854 0.9803
3.5132 2.9037 -1.9864 0.9803
2.9453 3.4837 -1.9881 0.9803
0.3550 4.5429 -1.9859 0.9803
-0.8584 4.4784 -1.9873 0.9803
-1.2545 4.3874 -1.9887 0.9803
-1.6417 4.2624 -1.9907 0.9803
-4.3301 1.3963 -1.9828 0.9803
-4.4347 1.0048 -1.9817 0.9804
-4.5372 0.2023 -1.9794 0.9804
-4.5345 -0.2022 -1.9782 0.9804
-3.9930 -2.1307 -1.9725 0.9804
-2.9927 -3.3838 -1.9687 0.9805
-0.4514 -4.4867 -1.9652 0.9805
-0.0502 -4.5088 -1.9651 0.9805
0.7500 -4.4465 -1.9652 0.9805
1.1429 -4.3625 -1.9654 0.9805
1.8990 -4.0922 -1.9661 0.9805
1.7831 -3.0884 -1.5542 0.9846
1.9770 -2.8123 -1.4982 0.9851
2.3446 -2.7733 -1.5827 0.9843
4.2777 -1.4854 -1.9735 0.9804
4.4784 -0.7042 -1.9757 0.9804
4.5260 -0.3030 -1.9769 0.9804
4.5377 0.1011 -1.9781 0.9804
4.5134 0.5049 -1.9793 0.9804
4.4531 0.9051 -1.9804 0.9804
4.3575 1.2987 -1.9816 0.9804
4.2270 1.6823 -1.9827 0.9803
4.0628 2.0530 -1.9838 0.9803
3.8659 2.4077 -1.9849 0.9803
3.6381 2.7437 -1.9859 0.9803
3.3811 3.0580 -1.9868 0.9803
2.7877 3.6121 -1.9885 0.9803
1.3515 4.3570 -1.9881 0.9803
0.9578 4.4572 -1.9869 0.9803
0.5571 4.5230 -1.9861 0.9803
0.1523 4.5540 -1.9858 0.9803
-1.0574 4.4372 -1.9880 0.9803
-1.4494 4.3291 -1.9896 0.9803
-2.5416 3.7924 -1.9896 0.9803
-2.8681 3.5499 -1.9890 0.9803
-3.4493 2.9827 -1.9874 0.9803
-3.6994 2.6627 -1.9865 0.9803
-4.3868 1.2017 -1.9823 0.9803
-4.4737 0.8060 -1.9811 0.9804
-4.5251 0.4044 -1.9800 0.9804
-4.2555 -0.3803 -1.9776 0.9813
-3.9972 -1.4886 -1.9744 0.9814
-3.4567 -2.4880 -1.9714 0.9814
-3.2201 -2.7845 -1.9705 0.9814
-2.6732 -3.3086 -1.9689 0.9814
-2.0429 -3.7277 -1.9676 0.9814
-0.2365 -4.2405 -1.9659 0.9815
0.1419 -4.2446 -1.9659 0.9815
0.5192 -4.2153 -1.9659 0.9815
1.2585 -4.0572 -1.9663 0.9815
1.6149 -3.9298 -1.9666 0.9814
1.9587 -3.7712 -1.9671 0.9814
2.1604 -2.7993 -1.6368 0.9845
2.8881 -3.1226 -1.9689 0.9814
3.0551 -2.7632 -1.9068 0.9820
3.3987 -2.5631 -1.9704 0.9814
3.6150 -2.2514 -1.9713 0.9814
3.8029 -1.9217 -1.9723 0.9814
3.9608 -1.5764 -1.9733 0.9814
4.2712 -0.0952 -1.9775 0.9813
4.2651 0.2855 -1.9787 0.9813
4.2251 0.6644 -1.9798 0.9813
4.0448 1.4045 -1.9819 0.9813
3.9058 1.7599 -1.9830 0.9813
3.0519 3.0180 -1.9868 0.9813
2.4703 3.5140 -1.9883 0.9812
2.1484 3.7211 -1.9889 0.9812
1.8092 3.8987 -1.9895 0.9812
1.4553 4.0452 -1.9899 0.9812
1.0897 4.1594 -1.9903 0.9812
0.7151 4.2393 -1.9900 0.9812
-0.0479 4.2978 -1.9895 0.9812
-0.8096 4.2237 -1.9907 0.9812
-1.8958 3.8579 -1.9897 0.9812
-2.5484 3.4588 -1.9887 0.9812
-2.8452 3.2171 -1.9880 0.9812
-3.1191 2.9500 -1.9872 0.9813
-3.3679 2.6596 -1.9864 0.9813
-3.5896 2.3482 -1.9855 0.9813
-3.9452 1.6729 -1.9836 0.9813
-4.0764 1.3145 -1.9826 0.9813
-4.2402 0.5703 -1.9804 0.9813
-4.2718 0.1905 -1.9793 0.9813
-4.2694 -0.1904 -1.9782 0.9813
-4.1633 -0.9433 -1.9760 0.9814
-3.9259 -1.6647 -1.9738 0.9814
-3.7602 -2.0065 -1.9728 0.9814
-3.0922 -2.9245 -1.9701 0.9814
-2.8184 -3.1869 -1.9693 0.9814
-2.5227 -3.4238 -1.9686 0.9814
-1.5272 -3.9652 -1.9669 0.9814
-1.1680 -4.0846 -1.9665 0.9814
-0.7997 -4.1717 -1.9662 0.9815
-0.0473 -4.2468 -1.9659 0.9815
0.3308 -4.2341 -1.9659 0.9815
0.7064 -4.1881 -1.9660 0.9815
2.1250 -3.6807 -1.9673 0.9814
3.2805 -2.7114 -1.9700 0.9814
3.5103 -2.4097 -1.9709 0.9814
3.7126 -2.0887 -1.9718 0.9814
4.0281 -1.3987 -1.9738 0.9814
4.1388 -1.0352 -1.9748 0.9814
4.2168 -0.6631 -1.9759 0.9814
3.9793 1.5837 -1.9825 0.9813
3.6392 2.2665 -1.9845 0.9813
2.3117 3.6212 -1.9886 0.9812
1.9808 3.8137 -1.9892 0.9812
-0.2393 4.2917 -1.9897 0.9812
-0.6206 4.2548 -1.9903 0.9812
-1.3651 4.0774 -1.9903 0.9812
-1.7223 3.9390 -1.9900 0.9812
-2.0656 3.7692 -1.9895 0.9812
-2.6995 3.3412 -1.9883 0.9812
-3.2467 2.8076 -1.9868 0.9813
-4.1298 1.1313 -1.9820 0.9813
-4.2602 0.3807 -1.9799 0.9813
-3.8844 -1.0641 -1.9756 0.9822
-3.7724 -1.4048 -1.9746 0.9822
-3.4602 -2.0495 -1.9727 0.9822
-3.2625 -2.3482 -1.9718 0.9823
-2.7922 -2.8871 -1.9702 0.9823
-2.5232 -3.1230 -1.9694 0.9823
-1.9283 -3.5188 -1.9682 0.9823
-0.9296 -3.9008 -1.9670 0.9823
-0.2232 -4.0030 -1.9666 0.9823
1.1880 -3.8299 -1.9670 0.9823
1.5245 -3.7096 -1.9673 0.9823
2.1590 -3.3820 -1.9682 0.9823
2.4522 -3.1774 -1.9687 0.9823
2.7261 -2.9475 -1.9694 0.9823
3.2079 -2.4192 -1.9709 0.9823
3.4120 -2.1250 -1.9717 0.9823
3.5892 -1.8137 -1.9726 0.9822
3.9467 -0.8022 -1.9755 0.9822
4.0247 0.2694 -1.9786 0.9822
3.9173 0.9798 -1.9807 0.9822
3.3356 2.2898 -1.9846 0.9821
2.8792 2.8473 -1.9863 0.9821
2.6153 3.0934 -1.9870 0.9821
2.3304 3.3151 -1.9877 0.9821
1.7067 3.6778 -1.9888 0.9821
1.3729 3.8160 -1.9893 0.9821
1.0280 3.9237 -1.9896 0.9821
0.6747 4.0002 -1.9899 0.9821
0.3161 4.0447 -1.9901 0.9821
-0.0452 4.0569 -1.9901 0.9821
-0.4061 4.0367 -1.9901 0.9821
-0.7637 3.9843 -1.9900 0.9821
-2.4041 3.2629 -1.9881 0.9821
-2.6842 3.0350 -1.9874 0.9821
-2.9426 2.7831 -1.9867 0.9821
-3.3867 2.2155 -1.9851 0.9821
-3.7224 1.5784 -1.9833 0.9821
-3.8462 1.2402 -1.9823 0.9822
-3.9393 0.8925 -1.9813 0.9822
-4.0011 0.5381 -1.9803 0.9822
-4.0310 0.1797 -1.9792 0.9822
-3.9947 -0.5372 -1.9771 0.9822
-3.5489 -1.8937 -1.9731 0.9822
-3.3647 -2.2011 -1.9722 0.9822
-2.6603 -3.0081 -1.9698 0.9823
-2.3812 -3.2318 -1.9691 0.9823
-2.0835 -3.4298 -1.9685 0.9823
-1.7694 -3.6007 -1.9680 0.9823
-0.0447 -4.0089 -1.9666 0.9823
0.3123 -3.9970 -1.9666 0.9823
1.0162 -3.8788 -1.9669 0.9823
1.3576 -3.7735 -1.9671 0.9823
2.0059 -3.4744 -1.9679 0.9823
3.5040 -1.9713 -1.9722 0.9822
3.6673 -1.6524 -1.9731 0.9822
3.9060 -0.9770 -1.9750 0.9822
3.9795 -0.6257 -1.9760 0.9822
4.0215 -0.2692 -1.9771 0.9822
4.0316 0.0898 -1.9781 0.9822
3.8708 1.1536 -1.9812 0.9822
3.7546 1.4943 -1.9822 0.9822
3.4335 2.1384 -1.9842 0.9821
3.0026 2.7157 -1.9859 0.9821
2.4754 3.2074 -1.9874 0.9821
2.1808 3.4161 -1.9880 0.9821
1.2016 3.8737 -1.9895 0.9821
0.8522 3.9659 -1.9898 0.9821
0.1356 4.0548 -1.9901 0.9821
-0.2259 4.0509 -1.9901 0.9821
-0.5855 4.0146 -1.9901 0.9821
-0.9404 3.9462 -1.9899 0.9821
-1.6247 3.7158 -1.9893 0.9821
-1.9486 3.5557 -1.9889 0.9821
-2.5467 3.1521 -1.9878 0.9821
-2.8162 2.9119 -1.9871 0.9821
-3.0631 2.6487 -1.9863 0.9821
-3.2853 2.3646 -1.9855 0.9821
-3.4812 2.0619 -1.9847 0.9821
-4.0200 0.3592 -1.9798 0.9822
-3.7500 -0.6756 -1.9767 0.9830
-3.6731 -1.0062 -1.9757 0.9830
-3.5673 -1.3285 -1.9748 0.9830
-3.4333 -1.6399 -1.9739 0.9830
-3.2722 -1.9381 -1.9730 0.9830
-2.6407 -2.7305 -1.9706 0.9830
-2.1134 -3.1534 -1.9693 0.9830
-1.8238 -3.3280 -1.9688 0.9830
-1.2043 -3.5971 -1.9679 0.9831
-0.5473 -3.7526 -1.9674 0.9831
-0.2111 -3.7862 -1.9673 0.9831
0.7967 -3.7077 -1.9674 0.9831
1.1237 -3.6224 -1.9676 0.9831
2.0420 -3.1987 -1.9687 0.9830
2.8171 -2.5479 -1.9705 0.9830
3.0338 -2.2879 -1.9713 0.9830
3.5350 -1.4069 -1.9738 0.9830
3.6479 -1.0872 -1.9747 0.9830
3.7320 -0.7586 -1.9757 0.9830
3.7866 -0.4236 -1.9766 0.9830
3.8055 0.2547 -1.9786 0.9830
3.7037 0.9264 -1.9806 0.9829
3.4841 1.5699 -1.9825 0.9829
2.7218 2.6916 -1.9858 0.9829
2.2029 3.1337 -1.9872 0.9829
1.9158 3.3183 -1.9878 0.9829
1.6133 3.4765 -1.9883 0.9829
0.9717 3.7088 -1.9890 0.9829
0.2987 3.8231 -1.9894 0.9829
-0.7219 3.7661 -1.9894 0.9829
-1.9896 3.2753 -1.9881 0.9829
-3.2016 2.0944 -1.9847 0.9829
-3.6363 1.1726 -1.9821 0.9829
-3.7829 0.5088 -1.9802 0.9829
-3.8094 -0.1699 -1.9782 0.9830
-3.7152 -0.8418 -1.9762 0.9830
-3.6238 -1.1685 -1.9753 0.9830
-3.5037 -1.4857 -1.9743 0.9830
-3.3561 -1.7908 -1.9734 0.9830
-3.1819 -2.0815 -1.9726 0.9830
-2.7602 -2.6106 -1.9710 0.9830
-2.5160 -2.8449 -1.9703 0.9830
-2.2521 -3.0565 -1.9696 0.9830
-1.6735 -3.4055 -1.9685 0.9830
-1.0428 -3.6469 -1.9678 0.9831
-0.0422 -3.7918 -1.9672 0.9831
0.6308 -3.7393 -1.9673 0.9831
0.9611 -3.6687 -1.9675 0.9831
1.2840 -3.5690 -1.9677 0.9831
1.5969 -3.4412 -1.9681 0.9831
2.1827 -3.1050 -1.9690 0.9830
2.4511 -2.8992 -1.9696 0.9830
2.9283 -2.4203 -1.9709 0.9830
3.4680 -1.5626 -1.9734 0.9830
3.5950 -1.2483 -1.9743 0.9830
3.8026 -0.2546 -1.9771 0.9830
3.8121 0.0850 -1.9781 0.9830
3.7913 0.4241 -1.9791 0.9830
3.6596 1.0907 -1.9811 0.9829
2.8384 2.5672 -1.9855 0.9829
2.3400 3.0320 -1.9869 0.9829
2.0614 3.2292 -1.9875 0.9829
1.4570 3.5453 -1.9885 0.9829
0.8055 3.7487 -1.9891 0.9829
0.1281 3.8327 -1.9895 0.9829
-0.5534 3.7947 -1.9894 0.9829
-0.8889 3.7301 -1.9893 0.9829
-1.5358 3.5124 -1.9887 0.9829
-2.1332 3.1830 -1.9878 0.9829
-2.4074 2.9796 -1.9872 0.9829
-2.6622 2.7527 -1.9866 0.9829
-3.1058 2.2354 -1.9851 0.9829
-3.4500 1.6479 -1.9835 0.9829
-3.7574 0.6769 -1.9807 0.9829
-3.8009 0.3397 -1.9797 0.9830
-3.5966 -0.3214 -1.9777 0.9837
-3.3792 -1.2584 -1.9750 0.9837
-3.2523 -1.5535 -1.9741 0.9837
-2.9229 -2.1038 -1.9725 0.9837
-2.2609 -2.7983 -1.9704 0.9837
-2.0022 -2.9875 -1.9698 0.9837
-1.7279 -3.1531 -1.9693 0.9837
-0.8331 -3.4956 -1.9682 0.9837
-0.2000 -3.5873 -1.9678 0.9837
0.4392 -3.5659 -1.9678 0.9837
0.7549 -3.5129 -1.9679 0.9837
1.3661 -3.3242 -1.9684 0.9837
1.6569 -3.1900 -1.9688 0.9837
2.1973 -2.8471 -1.9697 0.9837
2.4427 -2.6410 -1.9703 0.9837
3.2154 -1.6248 -1.9732 0.9837
3.5867 -0.4012 -1.9767 0.9837
3.6099 -0.0804 -1.9777 0.9837
3.5704 0.5614 -1.9795 0.9837
3.2997 1.4868 -1.9823 0.9836
3.1557 1.7754 -1.9831 0.9836
2.0861 2.9675 -1.9867 0.9836
1.8142 3.1422 -1.9873 0.9836
1.2288 3.4156 -1.9881 0.9836
0.9201 3.5120 -1.9884 0.9836
0.6039 3.5803 -1.9887 0.9836
0.2829 3.6202 -1.9888 0.9836
-0.6836 3.5662 -1.9888 0.9836
-1.8840 3.1015 -1.9875 0.9836
-2.1520 2.9208 -1.9870 0.9836
-2.4028 2.7168 -1.9865 0.9836
-2.8445 2.2463 -1.9851 0.9836
-3.1952 1.7050 -1.9836 0.9836
-3.3329 1.4133 -1.9828 0.9836
-3.6099 0.1610 -1.9791 0.9837
-3.6082 -0.1609 -1.9782 0.9837
-3.5779 -0.4812 -1.9773 0.9837
-3.4327 -1.1069 -1.9754 0.9837
